-0.038632 0.167867 0.002788 2.175860 1.105380 4.631200
-0.037523 0.124042 0.025944 0.255348 4.825558 3.145818
0.043233 0.089594 -0.006456 5.329182 0.855510 -2.414902
-0.026748 0.10975 0.038619 -1.235063 3.261980 5.210975
-0.063449 0.097112 -0.017938 -2.368708 0.514463 -5.785532
-0.025891 0.048891 0.049042 -1.501232 4.365808 3.313577
0.045346 0.082603 0.023076 5.826797 0.493719 1.763804
0.006619 0.047417 0.050356 1.237606 -3.614519 3.967856
-0.04071 0.050423 0.039629 -0.711702 0.563401 6.053964
-0.006309 0.051457 0.052597 -1.187559 -2.943299 5.109639
-0.064662 0.151974 0.036264 1.242156 4.225675 3.465758
-0.018605 0.049922 0.047107 -1.518097 2.022716 4.531967
-9.4e-05 0.052014 0.054278 -0.099453 -1.984873 5.065516
0.00941 0.060149 0.052895 2.331122 -1.814694 5.498609
0.000322 0.058135 0.054484 0.402913 -1.884302 5.863311
-0.085941 0.125175 0.049068 -3.749865 -0.192266 4.658874
-0.027746 0.064856 0.037498 -1.514918 -0.964871 4.400466
0.003858 0.062044 0.056777 1.130632 -1.419825 5.140898
-0.077835 0.145715 0.043808 -1.265911 3.926477 4.020892
-0.005881 0.062411 0.056478 -0.910388 -0.832178 5.824076
-0.047781 0.063839 0.037342 -3.513644 -1.680144 4.768870
0.011484 0.123198 0.03427 1.117812 4.033999 4.275233
-0.062211 0.147546 -0.005052 5.653147 0.592968 -1.929681
-0.012589 0.069082 0.054415 -1.549071 -0.979718 5.948740
-0.005859 0.087537 -0.037176 1.155444 1.330267 -5.873149
3e-05 0.068579 0.056492 0.537161 -0.723393 6.102492
-0.016743 0.123139 0.030848 -1.814805 5.075541 3.087204
-0.071191 0.155859 0.001279 0.384395 5.992967 0.807971
0.044646 0.069351 0.024242 2.728467 2.233867 3.739917
-0.045986 0.073503 0.042256 -0.348001 -1.707843 5.891875
-0.038661 0.063179 0.041795 0.101018 -0.968940 5.675845
-0.003043 0.073778 0.059461 0.142494 -0.712816 5.118025
-0.019943 0.187176 -0.01595 0.328948 2.078463 0.592702
-0.076123 0.163992 -0.018367 -4.050807 3.588336 1.960790
-0.01127 0.120275 0.036868 -1.057086 3.835519 4.576931
0.009089 0.08066 0.054966 1.703506 0.540453 5.942787
-0.017682 0.082305 0.057622 -1.567402 -0.322923 5.592898
-0.078078 0.154685 0.029078 -1.308786 5.495095 1.811194
-0.050393 0.085761 0.046102 0.577466 -0.382314 5.690423
-0.07526 0.12723 0.053502 0.717418 0.572007 5.678288
-0.042039 0.084825 0.042519 0.130113 -0.009149 5.995884
-0.007645 0.079109 0.058188 -0.482931 -0.051866 6.122277
-0.074281 0.117286 0.053631 -0.609760 -1.862049 4.757459
-0.065353 0.085654 0.044968 -1.431838 -0.740233 5.330096
-0.059945 0.074585 0.041788 -1.189250 -2.822948 5.162426
-0.037174 0.08195 0.043756 0.249854 -1.036845 5.866269
-0.003971 0.124981 0.033251 -0.325028 4.671165 3.896681
-0.026922 0.181455 -0.007884 0.652794 2.185370 2.548399
-0.032593 0.177828 -0.005142 -2.037745 4.831444 2.378933
-0.030548 0.087232 0.043284 -2.068130 -0.144261 5.036327
-0.012103 0.092198 0.056667 -0.815423 2.391383 5.239825
-0.036983 0.092657 0.044193 -1.243978 0.436947 5.865985
0.005296 0.08614 0.057126 1.421765 0.624347 5.595913
0.019647 0.086817 0.049574 2.670774 1.206549 5.526332
-0.038692 0.115422 0.033305 -0.150150 3.964410 4.823234
-0.070146 0.089763 0.04262 -2.452420 -0.100166 5.530009
-0.018226 0.117876 0.036486 -1.621440 3.665167 4.663105
-0.059685 0.147446 0.036516 3.296631 1.027287 4.261199
-0.050053 0.09618 0.044423 0.457446 1.874300 5.661619
-0.07254 0.095957 0.04127 -2.714761 1.052161 5.141499
-0.056884 0.092762 0.045348 -0.904586 1.512770 5.572250
-0.040294 0.098952 0.041786 0.059077 1.667308 5.945621
0.006439 0.132232 0.014596 0.655673 5.893815 0.361394
-0.053895 0.0972 0.043345 -0.463146 1.982773 5.844181
0.023359 0.095899 0.046777 2.393659 1.859021 5.135741
-0.011316 0.129221 0.00291 -1.049112 5.897903 -1.377383
-0.046949 0.093514 -0.02192 -0.289603 0.019698 -6.237655
-0.059835 0.102266 0.042689 -0.466225 1.894652 5.659691
-0.029833 0.101135 0.04308 -0.904819 2.254790 5.681686
0.011888 0.102476 0.047452 0.068550 3.192267 4.592128
-0.046466 0.167133 0.003131 -1.685269 4.019695 3.148631
-0.065862 0.153866 -0.001908 3.406104 4.753241 0.041782
-0.044387 0.106839 0.040714 0.596236 2.420858 5.111477
-0.01803 0.106099 0.042558 -0.938810 2.175541 5.765688
-0.046574 0.153815 0.009349 3.359241 0.056592 4.912594
-0.047007 0.099425 0.042698 0.433652 2.149472 5.868671
-0.008282 0.101652 0.04383 -0.268285 2.683520 4.493423
-0.006486 0.108283 0.04397 -0.280948 1.475064 5.818152
0.021424 0.121505 0.031182 2.655603 4.085069 3.490582
0.017255 0.109608 0.039746 1.561427 3.075403 5.210047
0.023135 0.125159 0.021213 3.060326 5.100198 1.075004
-0.050136 0.110464 0.037566 0.059552 3.514247 5.163005
-0.073907 0.171564 -0.047586 -4.585104 -2.891144 -1.418674
0.018182 0.036268 0.042512 2.003994 -3.165288 2.748140
-0.05433 0.097111 -0.022408 -0.962709 0.689549 -5.748288
0.026269 0.039553 0.030992 3.505723 -4.334527 2.622775
-0.029066 0.093469 -0.024545 -2.319937 2.519276 -4.653078
-0.039288 0.044575 0.041301 -1.197691 2.369320 5.245765
-0.006058 0.045881 0.047354 0.598903 -1.316723 5.242490
-0.066457 0.110304 0.037295 1.000903 -1.266634 4.221167
-0.021404 0.045562 0.053215 0.332640 2.428240 4.683095
0.01765 0.043039 0.044185 2.088551 0.383979 5.310403
-0.040635 0.159922 0.002471 2.838693 1.592894 3.665329
0.011322 0.045022 0.044806 1.713486 -1.502836 5.428348
0.049174 0.044307 0.021629 3.219223 -4.531468 2.015095
0.028021 0.046282 0.036458 3.996191 -2.438109 3.914411
0.033645 0.049093 0.031488 2.372040 -2.491626 4.660499
-0.011129 0.182158 -0.027227 3.559671 2.634841 -0.372094
-0.054071 0.123768 0.03808 3.782134 0.103845 4.366558
0.020741 0.05555 0.0481 2.599117 -2.164764 4.259420
0.023003 0.049323 0.039928 3.119934 -1.511183 4.898426
-0.049505 0.05028 0.036331 -2.487076 3.345827 3.762026
0.035495 0.103128 -0.011159 4.206105 1.850562 -3.593361
0.059989 0.062227 0.021516 4.921887 0.106698 2.308922
0.013667 0.055693 0.050689 2.271380 -1.813028 5.341526
0.04302 0.04912 0.032996 0.974349 -1.558447 4.410088
0.053744 0.054858 0.027754 3.856418 -1.643900 3.931007
-0.049178 0.130401 0.030288 4.657990 1.904971 3.086482
-0.028849 0.162315 -0.003816 1.455279 4.613409 3.887074
-0.036101 0.158265 0.004249 1.672485 1.410470 4.114474
-0.089109 0.099057 0.008227 -5.779788 0.252443 -1.036174
0.026136 0.060229 0.044245 3.579947 -1.009889 4.891972
0.03432 0.060597 0.039225 3.876137 -1.069564 4.201517
-0.013982 0.178957 -0.021269 4.330871 2.169789 3.868092
0.012129 0.065567 0.053747 2.562317 -1.357867 5.415787
0.020511 0.065463 0.048451 3.495474 -0.759493 5.130001
0.028693 0.111728 0.03455 3.238277 2.949665 4.040449
0.002438 0.114145 0.041742 0.554880 2.457715 5.455184
-0.030297 0.121635 -0.007023 0.765001 5.271974 -3.143467
0.039845 0.059964 0.030392 2.547477 0.261359 4.838220
0.051687 0.064527 0.029555 1.629171 1.929132 4.366483
0.039512 0.070945 0.033551 4.955873 -0.372368 3.689044
0.007651 0.075327 0.056504 0.107051 0.632947 5.696010
0.026908 0.070176 0.043296 3.866148 -0.885777 4.675990
0.032967 0.077598 0.041811 4.054175 -0.779875 4.493554
0.040252 0.102372 0.02622 5.161659 2.201921 2.054265
-0.060796 0.125745 0.042799 4.379591 0.838187 3.990589
-0.022318 0.181221 -0.012616 4.450397 -0.145993 4.359956
-0.062587 0.137282 0.036031 4.082724 0.922301 3.799734
-0.068515 0.132239 0.047795 3.938575 1.878704 4.419693
0.015592 0.078141 0.054165 2.335489 0.516357 5.427264
-0.063799 0.143909 0.03892 4.213309 0.591179 4.462012
-0.065799 0.120921 0.051999 3.154401 -0.233651 3.768720
-0.033558 0.173613 -0.001108 2.145567 1.323164 3.845208
-0.04924 0.118066 0.031545 3.941466 1.513185 4.362042
-0.068718 0.114088 0.050433 2.223376 -3.452143 3.261129
-0.062044 0.114243 0.037354 2.937608 -2.750886 4.355869
0.027865 0.103405 0.039124 2.749844 2.753782 4.907140
-0.055094 0.114335 0.035233 1.509796 0.825633 5.410357
0.02673 0.079214 0.047114 3.657993 -0.165596 4.859337
-0.00997 0.167686 -0.017702 4.147429 0.022408 2.185330
-0.033646 0.165935 -0.004786 3.463902 0.969199 4.090930
-0.06993 0.14159 0.046209 2.223171 2.500311 4.628760
0.039804 0.089822 0.033495 5.231951 0.747277 3.131943
-0.024682 0.159952 -0.001088 2.136019 0.874466 3.407030
0.009088 0.097645 0.049418 1.046860 3.293286 5.083640
-0.045252 0.122806 0.025016 2.362568 3.097892 3.487731
-0.048532 0.143887 0.006514 5.459598 -1.700031 1.010355
0.014126 0.090787 0.052728 2.768283 2.239741 4.015597
0.034274 0.091666 0.040805 3.962993 1.018058 4.270388
0.041527 0.097216 -0.003903 5.297248 2.031552 -2.400514
-0.084037 0.145378 0.00481 -5.109073 0.912352 -3.425465
0.019655 0.035085 -0.003456 2.403949 -5.303963 -1.363416
-0.089659 0.099833 0.017847 -5.730007 1.044523 0.703197
0.016325 0.035201 -0.018314 2.332884 -3.812465 -2.186635
0.020591 0.043659 -0.020978 3.716538 -1.334214 -3.528052
0.022728 0.039972 -0.005642 3.459893 -3.957244 -2.686090
0.056546 0.049738 0.018075 4.618207 -3.212177 1.223961
0.022565 0.045669 -0.01854 3.951270 -3.516635 -3.083499
-0.014554 0.162843 -0.010082 3.246554 1.058183 3.338296
0.028058 0.049173 -0.018234 3.991339 -2.650060 -2.732402
-0.061903 0.15259 -0.029073 5.244047 -2.138451 -0.714281
0.057159 0.050804 0.007605 4.669127 -3.090572 -1.389923
0.053557 0.058091 -0.003559 2.987475 -0.026337 -4.093297
-0.036286 0.151198 0.000402 3.078253 -4.185918 2.162630
0.061282 0.060979 0.008052 5.277744 -0.495288 -1.363640
0.038928 0.064147 -0.010753 4.894479 -1.238813 -3.187963
0.030796 0.048804 -0.007779 2.905512 -2.558682 -4.082036
-0.088206 0.135559 0.003366 -4.787948 1.713954 -2.830316
-0.061651 0.157813 -0.019788 5.493582 1.492483 0.835993
0.030795 0.058601 -0.017734 4.777656 -1.603876 -3.625650
0.021937 0.055669 -0.027055 2.761799 -1.039952 -4.752408
-0.094871 0.122902 0.022189 -5.791521 -0.410535 0.640824
0.042068 0.063212 -0.002158 2.877669 0.908524 -4.059763
-0.068864 0.156533 -0.053205 -2.771984 -2.123711 -2.797874
0.041049 0.106185 0.00615 5.257890 2.834064 -0.656195
-0.051989 0.142827 0.01831 5.787052 1.498629 1.476989
-0.086972 0.121397 -0.001898 -3.905374 -0.787294 -3.940261
-0.025615 0.156162 -0.003544 2.818928 -4.516452 1.651975
-0.053935 0.139875 0.028353 5.062324 1.602311 3.054710
0.031952 0.069103 -0.018709 4.380069 -0.379560 -4.441167
-0.092423 0.113974 0.016676 -4.674648 -3.249371 0.208716
0.03922 0.077501 -0.010108 5.171480 -0.589458 -3.472008
0.046713 0.072341 0.005563 3.739331 2.814334 -2.478301
-0.076643 0.149485 -0.008679 -5.742428 -1.314299 -0.999356
0.045163 0.095673 0.008717 5.879411 1.444218 -0.162926
-0.091672 0.117524 0.028069 -5.330149 -2.752964 0.503000
0.044133 0.080232 -0.002522 5.655964 -0.512108 -2.640073
0.037727 0.085584 -0.016367 4.163025 0.284954 -3.771403
-0.062777 0.161085 -0.04721 6.002069 -1.315737 -0.260734
-0.093435 0.121095 0.042248 -4.584512 -0.298216 1.832637
-0.067905 0.173751 -0.043985 3.176666 4.758103 2.183600
-0.063846 0.180771 -0.058948 1.454010 2.168803 -0.978510
5.3e-05 0.097862 0.053297 0.721092 3.846041 4.024121
-0.082061 0.154804 0.013629 -2.052863 5.693034 -0.426172
-0.086549 0.109 0.015694 -5.294994 -1.415867 0.482107
-0.091717 0.141326 0.017134 -5.712913 -0.441085 -0.710351
-0.092111 0.128137 0.031104 -6.017159 1.346665 0.637053
-0.06302 0.168283 -0.045257 5.610791 1.899886 1.121363
-0.091075 0.135224 0.016144 -5.869584 1.696281 -0.678249
-0.030168 0.118019 0.030802 -0.525690 4.654483 4.036090
-0.02846 0.125795 0.008832 -0.129646 6.163952 -0.022605
-0.079635 0.167489 -0.036775 -3.777939 -0.645398 -0.492732
0.012743 0.127966 0.027041 1.385796 5.323029 2.340558
-0.081065 0.111196 -0.000918 -4.394517 -0.147922 -4.096089
-0.067871 0.156792 0.022379 0.157218 6.012534 0.730740
0.060392 0.069417 0.011831 4.702112 2.591800 -0.399085
0.030267 0.120025 0.005493 4.116491 4.359708 -0.840946
-0.091498 0.150215 0.020796 -4.110342 2.545761 0.645866
-0.087751 0.128902 0.0009 -5.016294 0.935969 -3.388411
0.05767 0.071756 0.018414 3.342174 3.675002 1.631112
-0.087413 0.09319 0.00484 -6.122259 -0.318790 -1.302355
-0.009347 0.098183 0.051937 -0.898563 4.869074 3.403438
0.002048 0.102202 0.043813 0.122974 3.288551 4.547006
-0.055002 0.153297 0.028117 3.180140 2.952783 1.713727
0.04679 0.073773 0.016792 3.580191 3.382776 0.941687
-0.051351 0.152104 0.013223 4.106859 2.310171 3.065938
-0.042883 0.128827 0.014388 3.415208 4.799340 0.842738
0.032239 0.117348 0.02313 4.310964 3.784569 1.518616
-0.005179 0.129883 0.025223 -0.723253 5.552387 2.032739
-0.067096 0.164861 -0.018887 2.968745 4.542140 2.029288
-0.073324 0.170102 -0.027685 -1.040010 4.957112 1.976528
0.052646 0.072994 0.020857 0.959952 4.785318 2.403190
-0.014724 0.129248 0.015884 -1.453754 5.974134 0.584484
-0.027112 0.124435 0.018388 -0.780626 5.906550 1.649333
-0.084777 0.09597 -0.003931 -5.007486 0.701149 -3.179479
0.007587 0.130944 0.001903 0.766518 5.554985 -1.732900
-0.061746 0.0426 0.042925 -3.681900 2.344390 3.374374
-0.055235 0.043304 0.04658 -0.511491 2.056679 4.373501
-0.02657 0.038204 0.055248 -0.667910 -0.717554 4.146461
-0.064199 0.042219 0.027537 -4.126354 3.044088 -2.074749
-0.067406 0.035436 0.036194 -2.901574 -1.575223 0.670797
-0.064134 0.044628 0.034748 -4.110386 3.520787 0.230706
-0.034115 0.042437 0.048702 -3.829267 1.602308 3.666421
-0.071384 0.035533 0.010286 -3.272591 -1.018296 1.774043
-0.059415 0.039567 0.019974 -4.027846 3.798544 0.105700
-0.00278 0.100393 -0.023542 0.701435 3.501448 -4.590441
-0.030725 0.0793 0.041026 -1.741277 -1.442685 4.494374
-0.067561 0.044863 0.007377 -3.229999 3.893067 1.345349
-0.058863 0.156048 0.00954 -0.774640 5.765964 1.212247
-0.057476 0.047878 0.009161 -3.891219 3.504338 2.726517
-0.076982 0.179572 -0.051371 -1.260318 1.200814 -0.621892
-0.023736 0.086541 0.054457 -3.475353 1.462520 4.202829
-0.032961 0.051054 0.038223 -0.659227 3.737736 4.479658
-0.050039 0.047811 0.016868 -4.014739 1.809659 0.674384
-0.08308 0.08145 0.02921 -4.800635 -2.346129 2.527318
-0.051573 0.052359 0.030554 -5.472507 1.723507 2.074050
-0.020587 0.094703 0.05131 -2.770068 3.792638 3.358638
-0.087066 0.141474 0.040183 -4.354103 2.800157 2.830690
-0.027792 0.053068 0.03654 -1.270887 1.490478 3.503767
-0.085225 0.114025 0.048015 -1.579210 -2.425198 3.558833
-0.079604 0.174107 -0.04639 -3.089324 -0.109860 -0.862623
-0.078583 0.087018 0.037216 -3.910824 -0.726666 4.308822
-0.053553 0.060429 0.026462 -3.356346 -3.696069 2.334064
-0.085799 0.151046 0.029438 -3.371442 4.283424 2.266400
-0.085221 0.132036 0.049369 -3.758154 1.651826 3.946739
-0.074605 0.114104 -0.006416 -3.314852 0.416956 -5.149478
-0.025047 0.094997 0.044896 -2.179182 2.290179 4.940853
-0.016414 0.099612 0.044078 -1.108806 3.212928 4.455503
-0.074764 0.107316 0.036203 -2.329036 -2.413870 3.775575
-0.08246 0.108623 0.027619 -4.910004 -1.395520 2.949293
-0.078951 0.128836 0.054193 -0.717496 -0.170975 4.393417
-0.016813 0.062115 0.052682 -3.126479 -1.337328 4.861376
-0.058997 0.084194 -0.020854 -1.363632 -0.427404 -5.984463
-0.025047 0.080547 0.05358 -3.969488 -0.995223 3.848837
-0.008683 0.097657 -0.030445 -0.054234 5.101942 -3.105704
-0.06432 0.035936 0.024151 -5.158887 0.153275 -2.754903
-0.07075 0.162623 -0.045378 -5.768887 -0.891124 -1.953503
-0.044911 0.04578 -0.010946 -2.768574 2.327369 -4.466649
-0.068755 0.11606 -0.008746 -1.891568 1.282119 -5.671167
-0.089126 0.137079 0.025122 -5.843601 0.694048 0.665680
-0.069476 0.042643 0.000668 -3.994133 3.027551 -1.639144
-0.072853 0.03555 0.002529 -3.943113 -0.955956 -0.460998
-0.075578 0.154868 -0.000834 -3.769181 4.415861 -0.113804
-0.060851 0.155133 0.00369 -1.950845 5.166129 -1.945012
-0.043908 0.034308 -0.026883 -2.088396 -1.408873 -1.783296
-0.044744 0.039642 -0.021577 -4.931823 2.407007 -2.401470
-0.059362 0.047606 0.000101 -3.816110 4.059591 -2.173067
-0.039022 0.045911 -0.022759 -2.938880 4.256719 -2.553352
-0.054255 0.049028 0.029769 -4.085490 4.384086 -0.410678
-0.057553 0.048178 0.038938 -1.942964 4.990364 1.728980
-0.082537 0.151557 0.00365 -4.045390 2.934040 -2.784496
-0.057148 0.052574 0.000631 -5.657296 1.144356 -2.050976
-0.030353 0.04989 -0.019369 -4.047455 2.897911 -1.980819
-0.052512 0.051984 -0.007188 -3.962369 -0.293142 -4.611069
-0.056771 0.057251 0.007253 -3.930254 -2.688723 0.609618
-0.049863 0.054275 0.015634 -3.153783 0.196887 0.581810
-0.094007 0.129802 0.01818 -5.655270 1.602225 -0.380022
-0.065589 0.167628 -0.059737 -3.354031 -1.392844 -4.243360
-0.074146 0.151129 -0.029188 -5.638851 -1.840095 -0.743917
0.016944 0.094696 -0.024307 2.006903 2.694069 -5.215710
-0.091018 0.149734 0.013441 -4.073062 1.944741 -1.667689
-0.052736 0.163457 -0.000904 -3.914890 3.267538 -1.537424
-0.078459 0.159178 -0.022073 -4.915108 -1.299740 -0.490450
-0.056704 0.111275 -0.017686 0.769535 0.472084 -4.224172
-0.079616 0.07032 0.016623 -4.615850 -3.742211 0.793624
-0.074397 0.160314 -0.030905 -4.897597 -2.566322 -1.892758
0.029469 0.095176 -0.018643 3.353822 1.828906 -4.892460
-0.078424 0.146692 -0.003613 -4.888762 0.779882 -3.541697
-0.090341 0.1309 0.040068 -5.638185 1.680374 1.820455
0.004647 0.093885 -0.032195 1.642997 3.145290 -4.411730
-0.025189 0.178943 -0.01878 -3.690593 1.997341 -4.338360
-0.077799 0.073099 -0.005325 -3.892796 -3.376350 -2.517054
-0.030094 0.067301 -0.02797 -5.298761 -2.122491 -2.474014
-0.030573 0.059945 -0.018933 -5.652212 -1.134916 -2.292002
-0.075706 0.070108 -4.7e-05 -3.794298 -4.724776 -1.587005
-0.039761 0.120231 -0.012793 0.778331 3.853009 -4.756457
-0.086853 0.081079 0.010849 -5.458441 -2.353696 0.049325
-0.071911 0.144135 -0.014659 -2.797726 -4.710484 -1.349881
-0.08239 0.074996 0.003304 -4.814397 -3.421443 -1.251255
-0.070947 0.140954 -0.00805 -1.543923 -2.056957 -4.956580
-0.036361 0.078336 -0.019535 -2.827458 -1.715669 -4.196253
-0.081644 0.129364 -0.004806 -3.524764 0.934261 -4.978451
-0.032331 0.078279 -0.031704 -4.757141 -0.455449 -3.102391
-0.079744 0.08191 -0.007905 -4.735745 -1.629615 -3.618974
-0.040541 0.166202 -0.012095 -3.403582 0.913109 -4.833113
-0.033651 0.085644 -0.024757 -3.923945 0.549630 -4.237377
-0.087724 0.085428 0.01422 -5.936981 -1.767200 0.288236
-0.089609 0.141602 0.031992 -5.850304 1.158503 1.050076
-0.075188 0.152833 -0.015966 -4.818007 -1.627360 -1.590977
-0.08536 0.109807 0.006222 -5.281697 -0.990214 -2.272250
-0.039019 0.174111 -0.009029 -3.668750 3.769732 -1.730670
-0.055531 0.040944 -0.009922 -2.094679 2.470243 -5.109078
-0.086394 0.08557 -0.00084 -5.177306 -1.158158 -2.236200
-0.04966 0.118919 -0.014131 -0.601414 3.484071 -4.944969
-0.089823 0.092558 0.021822 -5.276531 -0.398561 1.497943
-0.092635 0.116935 0.008842 -4.974056 -1.568961 -1.869904
-0.052243 0.126999 -0.005034 1.339896 3.340144 -4.661946
0.021961 0.100321 -0.02116 1.950475 2.262838 -5.231245
-0.013342 0.112081 -0.018621 -0.557309 3.558039 -5.116873
0.054837 0.073109 0.009023 1.749375 5.018924 -1.508546
-0.020732 0.114935 -0.016742 -0.348573 4.047499 -4.663261
-0.02324 0.093652 -0.032678 -2.176529 4.415116 -3.140170
-0.014584 0.185601 -0.026982 0.176320 1.554691 -0.968676
-0.027912 0.034067 -0.029247 0.885974 -2.793121 -3.148365
-0.059774 0.149902 -0.001229 1.366890 2.465285 -5.111376
0.025109 0.111719 -0.01249 2.573994 3.272625 -4.615181
0.01127 0.104834 -0.020502 0.972430 2.027303 -5.817590
0.023069 0.121925 -0.004197 2.844139 4.517359 -2.809021
-0.005608 0.125002 -0.009489 -0.426933 4.711761 -3.611698
-0.033775 0.1054 -0.020968 -0.610661 2.262268 -5.790184
0.006642 0.099379 -0.022123 0.878433 3.020422 -4.739534
-0.015397 0.125153 -0.004109 -1.263232 5.440740 -2.834461
-0.069184 0.181162 -0.058506 -1.230935 1.928246 -1.419128
-0.002499 0.112386 -0.01964 0.155817 3.198913 -5.226695
-0.006156 0.110566 -0.022214 0.390235 2.814865 -4.487432
-0.066229 0.042518 -0.003252 -3.030657 3.579563 -3.447672
0.032361 0.07869 -0.019246 3.981622 -0.699022 -4.721980
-0.048008 0.135924 0.010304 5.698013 2.328893 -0.535212
0.004929 0.114402 -0.020103 0.124536 2.299856 -4.939516
0.051888 0.065658 -0.001557 1.534462 2.745887 -4.415619
-0.032558 0.114916 -0.016084 0.125059 3.776809 -4.887158
-0.036903 0.033739 -0.030894 -0.677387 -1.963890 -2.635317
-0.020082 0.09787 -0.02453 -0.889308 3.367865 -4.408736
0.032698 0.111022 -0.007977 3.885594 3.298672 -3.029296
-0.04674 0.129245 0.000886 3.011626 4.577239 -2.171664
-0.040696 0.125707 -0.008047 0.950561 4.825926 -3.020711
0.003607 0.126142 -0.007161 0.529064 5.053673 -3.508165
0.018408 0.127764 0.003915 2.530354 5.359316 -1.138508
0.057575 0.067384 0.002722 3.165992 1.739580 -3.301686
0.009753 0.120711 -0.014067 1.150505 4.175047 -3.971245
-0.028854 0.124656 0.002099 0.158771 5.971756 -1.472405
-0.009828 0.034195 -0.024366 0.612608 -3.910501 -3.123610
0.008998 0.03649 -0.023427 1.871374 -1.687261 -4.175105
-0.033262 0.042424 -0.030211 -0.887907 2.050723 -4.717347
-0.008576 0.043164 -0.026091 0.612961 -2.882822 -5.126462
-0.014324 0.10368 -0.023389 -0.108842 1.840632 -5.920645
0.037023 0.040523 -0.002041 1.802780 -4.376505 -3.504770
0.005315 0.042896 -0.024171 1.190167 -1.990102 -5.598775
0.013531 0.047821 -0.026028 1.583726 -2.918278 -5.244951
0.041065 0.050916 -0.007309 1.160774 -0.574713 -5.412851
-0.008375 0.045859 -0.029537 0.257549 -3.726542 -4.683941
0.001825 0.048337 -0.030067 2.087936 -2.307526 -4.568655
-0.018756 0.044979 -0.027907 -0.337500 -1.205156 -5.921763
-0.016257 0.053183 -0.032944 -1.243824 -2.466438 -5.394969
-0.053491 0.045812 -0.00755 -3.330926 2.403333 -4.608479
0.022227 0.051381 -0.024145 3.210076 -2.925971 -4.311068
-0.027082 0.048959 -0.025227 -2.924299 1.677586 -4.482495
0.04738 0.047547 -0.002962 3.042520 -3.191977 -3.780672
-0.032809 0.050877 -0.011141 -2.396820 1.729074 -2.822274
0.008578 0.054156 -0.030513 0.668505 -1.283898 -5.586585
-0.007171 0.054903 -0.033099 0.763159 -2.082697 -5.858351
-0.02568 0.061671 -0.031107 -4.258083 -1.990070 -3.945712
0.036614 0.054238 -0.006713 2.264141 -0.345159 -5.299677
-0.040331 0.10769 -0.01992 -0.293559 2.229547 -5.790924
-0.042983 0.054604 -0.011188 -0.715703 -1.061256 -6.052507
0.003429 0.056934 -0.031203 1.515866 -1.543523 -5.863004
0.000547 0.063627 -0.034407 1.534378 -0.554854 -5.812577
0.021085 0.061931 -0.02658 2.704819 -0.095948 -5.607101
-0.02564 0.106222 -0.022782 -0.701615 2.498686 -5.335533
-0.014088 0.062639 -0.03694 0.157584 -1.563800 -5.869432
-0.061313 0.103293 -0.018311 -2.156977 1.619035 -5.542106
-0.033408 0.056284 -0.010273 -2.105933 -0.684542 -3.839891
-0.073436 0.073412 0.03488 -3.190750 -3.289179 3.538052
-0.057247 0.060528 -0.003067 -3.743166 -3.365990 -2.946245
0.021876 0.069295 -0.0275 3.170641 -0.363387 -5.196206
-0.060035 0.121358 -0.008732 -0.533347 2.394847 -5.498068
0.010879 0.066111 -0.031139 1.949251 -1.352261 -5.807873
-0.002871 0.068252 -0.034506 1.399184 -0.446078 -6.011685
-0.021532 0.173488 -0.021241 -2.854917 -1.303024 -5.288347
-0.008517 0.074198 -0.037653 1.460906 -0.736718 -6.009379
-0.065608 0.066936 -0.007497 -2.328474 -4.549736 -3.544010
-0.05028 0.143741 0.000824 3.107162 -2.309482 -3.963963
-0.040535 0.159216 -0.011492 -1.850793 -1.889693 -5.336751
-0.021022 0.065418 -0.036655 -2.236059 -1.695140 -5.230038
-0.051433 0.067108 -0.012491 -1.777823 -2.894192 -5.044420
-0.015261 0.076268 -0.038966 0.380942 -0.285486 -6.156904
-0.034533 0.064421 -0.014132 -2.562113 -2.201255 -4.252844
-0.043908 0.067784 -0.016159 -1.080480 -1.860739 -5.658583
0.024869 0.084767 -0.02456 3.082085 0.944020 -5.264574
-0.059077 0.069973 -0.015104 -0.903683 -3.943234 -4.264929
-0.041303 0.084378 -0.021267 -1.117701 -1.936082 -5.801738
-0.069516 0.075346 -0.014957 -2.651850 -2.838294 -4.425019
0.008721 0.073259 -0.033724 1.972670 -0.404988 -5.690564
0.005912 0.084442 -0.033198 2.316909 0.833192 -5.773647
-0.027674 0.086866 -0.036187 -3.029211 1.746783 -3.905488
0.014356 0.076788 -0.030104 2.733891 0.627601 -5.604861
0.014113 0.087083 -0.030146 2.629163 1.247522 -5.341368
-0.074816 0.084473 -0.015099 -3.497010 -0.728276 -4.523279
-0.076411 0.094841 -0.013406 -3.516904 0.827102 -4.694327
-0.002226 0.083034 -0.037089 1.540563 0.487823 -5.838060
-0.022749 0.077591 -0.039002 -1.741294 -0.378719 -5.432539
-0.055926 0.079634 -0.020972 -0.409513 -1.733736 -5.557897
-0.065841 0.083605 -0.018912 -1.928745 -0.620496 -5.710447
-0.015214 0.091053 -0.037504 -0.254149 2.667433 -4.978744
-0.05463 0.152755 -0.002679 -2.673160 -0.361747 -5.180176
-0.075927 0.125275 -0.008277 -1.820645 -0.197407 -5.677074
-0.018345 0.033731 -0.026079 0.641444 -3.689416 -2.858977
0.004456 0.033966 -0.021007 0.459864 -5.617565 -1.652800
-0.003268 0.03437 -0.017376 -0.707879 -5.108119 2.520428
0.01195 0.034304 -0.011204 -0.533712 -5.958201 0.189768
-0.031721 0.033828 -0.021186 0.508084 -5.510383 1.900764
0.00754 0.038802 -0.009431 -2.247968 -3.777794 0.530623
-0.08048 0.11408 0.047569 -0.819232 -2.065974 5.596066
-0.004172 0.039154 -0.014111 -0.688815 -4.778006 2.430704
-0.032684 0.038589 -0.016529 1.388352 -4.612359 2.180189
-0.039195 0.034033 -0.015253 1.602931 -5.581663 1.013808
0.007509 0.034411 0.00467 0.127424 -4.213524 0.019751
0.025586 0.034909 0.002751 1.274634 -5.698245 -1.602402
-0.042372 0.033809 -0.003477 0.794048 -4.411320 0.145608
0.01712 0.034271 0.001954 0.283395 -4.250125 -0.226859
-0.059944 0.033627 -0.010153 -1.108717 -2.299023 -2.820286
-0.03812 0.03825 -0.006977 1.802227 -3.448777 0.531744
-0.004094 0.038391 0.008568 -1.557016 -5.829944 -0.226611
0.025074 0.034411 0.011174 0.514492 -4.287521 0.065093
0.044118 0.040892 0.004384 2.921484 -5.041382 -1.608190
-0.048695 0.033571 -0.013389 -1.719910 -3.230651 -2.148165
-0.022206 0.03869 -0.017188 -0.204222 -4.697983 2.663794
0.002026 0.034165 0.004107 -2.274288 -4.733249 -1.140284
0.048793 0.042901 0.011011 3.466440 -5.051748 -0.238900
-0.06985 0.033539 0.004727 -1.902114 -5.538463 0.257473
-0.029039 0.038221 0.00272 0.050915 -3.829086 -0.086569
-0.069196 0.034579 -0.00602 -2.171930 -1.213843 -2.010419
0.005046 0.034177 0.01576 -0.054253 -4.557024 0.073909
0.034111 0.035601 0.011664 1.804382 -5.763779 0.043232
0.002619 0.034323 0.019675 -2.194318 -4.912206 1.303909
-0.051528 0.03355 0.007814 -0.016765 -4.644664 0.061434
-0.034901 0.033747 0.010379 0.057073 -1.592930 0.013093
-0.030015 0.034351 0.018172 1.127410 -3.045979 0.420451
-0.027929 0.037711 0.020035 1.543181 -4.637233 0.564754
0.019617 0.034742 0.021397 0.409387 -4.559738 0.315807
-0.000694 0.038513 0.021743 -1.887414 -5.536233 1.206427
0.022319 0.035282 0.024092 1.330086 -5.983153 1.044108
0.034684 0.038735 0.024611 1.960312 -4.894398 2.745749
-0.062077 0.034516 0.020294 -2.931969 -3.091557 0.290060
-0.0516 0.066088 0.036174 -1.961319 -3.991785 4.298897
-0.004483 0.039218 0.035614 0.049061 -2.855523 0.137431
-0.082655 0.076999 0.021106 -5.153175 -3.177432 1.337225
-0.055121 0.034056 0.024036 -0.217658 -4.777099 0.126285
0.009041 0.035141 0.035926 -3.087989 -2.411116 -1.790323
0.012972 0.034672 0.029418 -0.895624 -5.895788 0.495123
-0.090089 0.112403 0.037453 -3.486597 -3.870202 0.384439
-0.066997 0.062934 -0.001956 -2.625024 -4.627272 -2.395316
-0.035388 0.034596 0.034245 0.891545 -3.801424 0.360425
0.007859 0.03924 0.030372 -1.707679 -3.274129 0.745721
-0.071388 0.147097 -0.026896 -2.811253 -4.964340 -1.213117
-0.016213 0.038057 0.016945 0.184085 -6.274888 0.083594
-0.006919 0.034711 0.042546 -0.041655 -3.553921 0.149135
-0.031802 0.037839 0.032183 1.832880 -3.362741 0.619901
0.004891 0.034575 0.043617 0.461566 -5.908317 1.150822
-0.069386 0.061033 0.009766 -2.959191 -5.084517 -0.544560
-0.036723 0.03421 0.02667 0.207125 -4.732065 0.188420
-0.024903 0.039047 0.038063 0.131905 -2.305593 0.128903
-0.066996 0.034958 0.03101 -2.917379 -2.053274 -0.371789
-0.067902 0.146313 -0.025723 1.444449 -5.396143 -1.554660
-0.037419 0.034781 0.041799 -0.899603 -3.222069 2.337080
-0.012835 0.035252 0.050222 0.801792 -3.397034 3.234426
-0.061775 0.065542 0.032955 -1.729744 -4.713734 3.393329
-0.051757 0.056601 0.019874 -3.715984 -2.394391 -0.094264
-0.046877 0.035027 0.045407 0.775153 -2.533203 3.120833
0.004325 0.035606 0.045888 1.040859 -2.823035 4.433079
-0.084462 0.111705 0.028857 -3.676937 -4.766204 0.602147
-0.060273 0.034788 0.045444 -1.389486 -2.156746 2.486235
-0.030763 0.035297 0.052008 -1.855384 -2.778356 2.486587
-0.074827 0.11067 0.046334 -0.122197 -5.110782 2.736902
-0.076864 0.067957 0.011082 -4.275213 -4.503468 -0.619544
-0.069649 0.061738 0.018026 -2.865474 -5.023469 1.270009
-0.064944 0.157314 -0.05448 2.030431 -2.913582 -2.604671
-0.044493 0.149423 -0.00475 -0.555568 -3.773199 -4.626622
-0.056918 0.136838 -0.00528 2.816058 1.261409 -5.272872
-0.060545 0.169731 -0.062221 1.447443 -0.158510 -1.854141
-0.050757 0.137975 0.001565 5.306753 0.726216 -2.991249
-0.026306 0.157004 -0.009894 1.381207 -5.278236 -2.646735
-0.009716 0.176357 -0.030374 0.949050 -0.105298 -1.899048
-0.008588 0.16953 -0.02541 1.898037 -1.323205 -1.374265
-0.018495 0.165075 -0.017689 -0.712508 -4.076590 -4.558202
-0.072553 0.150608 -0.041367 -2.985349 -2.627141 -1.316859
-0.014691 0.160456 -0.011333 2.675841 -3.274794 0.078782
-0.064196 0.142314 -0.00784 3.088201 -2.150728 -4.161238
-0.067194 0.151677 -0.045577 1.911472 -4.259923 -1.919267
