-0.0362225460877 0.166985224523 0.0219862685106
-0.0327760377843 0.12130881278 0.0409559240904
0.0430785866638 0.0898157452045 -0.0039018387221
-0.02069434174 0.10596649869 0.0509390865679
-0.0641223476964 0.0983058595863 -0.00160327349684
-0.0192247404542 0.044430661062 0.0558759092818
0.0486869295861 0.0802774635978 0.0244362195681
0.0131868057538 0.0428477473869 0.0530856711729
-0.0350598000564 0.0467772286917 0.0485071331449
0.000670150178281 0.046677057851 0.0572265140307
-0.0581631598038 0.148235075346 0.0568837225814
-0.0122170179995 0.0456263842267 0.0531638889811
0.00704882350883 0.0470854294299 0.0581794013251
0.0164004851451 0.0553100097161 0.056357415113
0.00755174714947 0.0531651830662 0.058861894206
-0.0780137214957 0.120422111112 0.069818902481
-0.0222978451417 0.0613410356894 0.0460686954296
0.0113812931672 0.0568594599248 0.0610363646682
-0.0703885675742 0.141342389547 0.0654069398918
0.00168248401366 0.057251122956 0.0619593554987
-0.0422132488524 0.0603415019864 0.0482681220408
0.01686752969 0.119742365433 0.0431429568138
-0.060793453226 0.147424853444 0.015349982827
-0.00515511846836 0.0640765401394 0.0613141062672
-0.00939891633779 0.090443998279 -0.0284719646843
0.00761663814042 0.0633944316528 0.0617863986963
-0.0115651471507 0.119981837025 0.0431942893148
-0.068849601733 0.155154436699 0.0234233925118
0.0479929485199 0.0669742678624 0.0245280536867
-0.039732394372 0.0695404440143 0.053744173868
-0.032627619264 0.0592959087995 0.0515025693321
0.00498221863434 0.0683148823604 0.0655463042403
-0.0197426553407 0.187853872891 0.00285144260994
-0.0760435871602 0.164968750606 0.00530264624664
-0.00543250094379 0.116604057624 0.0482319357707
0.0165511686306 0.0755624594814 0.0602186035299
-0.00968035886525 0.0769697140027 0.0662496400865
-0.0723227841132 0.151562060599 0.0516479435996
-0.0435094198179 0.0814165974537 0.0591444504596
-0.06685219638 0.122082842482 0.0730791893412
-0.0356626271212 0.0807964383791 0.0545026245155
0.000316595779282 0.0737365455865 0.0653096077318
-0.0659704537017 0.112165439341 0.0722272135273
-0.0584967207354 0.0814088392759 0.0598370946818
-0.0536326713936 0.0706591155792 0.0550762030169
-0.0307142485434 0.0778245669316 0.0548841327737
0.00142295491202 0.121607392314 0.0441731313917
-0.0257511440886 0.18145164452 0.0111824793315
-0.031085503932 0.177599465213 0.0142710475513
-0.0241388377592 0.0831276048378 0.0540668531502
-0.00415380652656 0.0869083018886 0.0654812618708
-0.0303578923872 0.0884527364533 0.0562191690683
0.0131068834776 0.0808333499242 0.0632906488948
0.0264412495302 0.0821659741832 0.0541330821569
-0.0331342163252 0.112080060814 0.0476310366199
-0.0634954104806 0.0857068450484 0.0584550378048
-0.0124085101846 0.114247480059 0.0484944205371
-0.0532407580468 0.143702342512 0.0561346491599
-0.0432651274449 0.0919422845338 0.0583441788004
-0.0659696731946 0.0919949352912 0.0579477734549
-0.0499692147913 0.0884566719703 0.0597956015195
-0.033869572807 0.0949335660197 0.0547872669208
0.00956755726554 0.130456691122 0.0250862382682
-0.0471985309148 0.0930523570533 0.057834743678
0.0298824750481 0.0914571891184 0.0517007645452
-0.00950582665195 0.128475651341 0.0154348005866
-0.0482669895493 0.0950686053903 -0.00786264497473
-0.0531200880341 0.098156253569 0.0583482547686
-0.0233062616947 0.0969954794592 0.0549807024718
0.0186487851722 0.0979503314748 0.054335097309
-0.0439643068471 0.166224123184 0.0232166449149
-0.0639684116117 0.153446786143 0.0194503368139
-0.0379784383089 0.102883984574 0.054908391233
-0.0116018874038 0.101986085242 0.0534555580906
-0.0434580607949 0.152414867598 0.0282258850867
-0.0404167892806 0.095325280039 0.0565480504327
-0.00181935392166 0.0974451452814 0.053140597855
5.06876731238e-05 0.104038710494 0.0536337704677
0.0263405557764 0.118324944863 0.0387318017842
0.0231159826077 0.105726814479 0.0466785309665
0.0268673217371 0.122833896249 0.0289823365156
-0.0440282674785 0.106769556738 0.0528099570608
-0.0773110266735 0.175058541572 -0.0232032393975
0.0235928914979 0.0324248226726 0.0429561338742
-0.0556140127 0.0986944497282 -0.00713448451172
0.0302559123808 0.0367013568308 0.0308641281553
-0.0308364541472 0.0952525605515 -0.0126414455664
-0.0335075245432 0.0408057576521 0.0494811692608
0.000223523867545 0.0415792339872 0.0515294496295
-0.0602622136754 0.106633784803 0.0545171884036
-0.0142999198527 0.0407506278529 0.0591672367683
0.0233398873665 0.0390242453313 0.0452609122758
-0.038333490319 0.159098086055 0.0212296416302
0.0171555107861 0.0409455756718 0.0468176685299
0.0519039571384 0.0422533059782 0.0192261159179
0.0327299288022 0.0429283574388 0.0366373254648
0.0377384801825 0.0461618249526 0.031280918282
-0.012416743111 0.183837823643 -0.00980715160283
-0.0477302242104 0.119978132887 0.0549486177322
0.02701603726 0.0511464222797 0.0498375240131
0.0282029097565 0.0456553549491 0.0409429599289
-0.0441911578934 0.0469222126128 0.0463056423512
0.0349710471313 0.103708137838 -0.00643822170864
0.0628149643195 0.0601149635127 0.0193465584899
0.0203106035922 0.0510632318066 0.0532719212924
0.0472269667559 0.0460572912931 0.0316317932748
0.0572955706935 0.0522303270508 0.0256381109108
-0.0437492347157 0.127265010136 0.0472216167224
-0.0273732004554 0.162029928348 0.0137839072224
-0.0336350269935 0.157292428468 0.0222917772434
-0.0863938469403 0.0979630272839 0.0275632936211
0.0319525039285 0.0561436027887 0.0457730960348
0.0394699545926 0.056947724452 0.0398439305064
-0.0145591428386 0.180129730288 -0.00384527764621
0.0192602035748 0.0606331358481 0.0573371741062
0.0269356570458 0.0609911086107 0.0510701472579
0.0338604201589 0.108291608665 0.0403303381142
0.00869994192382 0.110072586873 0.0508503300156
-0.0296318421179 0.121784236749 0.00727032153286
0.043874673441 0.057086980215 0.0303820457734
0.055575255018 0.0617055659954 0.0285059972266
0.0440443116297 0.0677508690499 0.0344960740672
0.0152539639212 0.0701157075842 0.061453241417
0.0327091888887 0.0661354622534 0.0456011474721
0.0386215724364 0.0736586456118 0.0440364676511
0.044222577176 0.0996972187476 0.0298758519527
-0.0538111854165 0.121536321673 0.0606052133089
-0.0217584380822 0.181630956113 0.00592229472458
-0.0562879667659 0.133619290187 0.0551295124358
-0.0607971303382 0.127570179745 0.0670475842487
0.0228816946054 0.0731228568249 0.0584161744019
-0.0570698026525 0.139969279381 0.0587070484425
-0.0577112014804 0.115928845289 0.0698942965955
-0.0315983311015 0.173048918158 0.018012723084
-0.0437891834092 0.11486739376 0.0474050023542
-0.0608711422849 0.109258332891 0.0681105240606
-0.0558331060195 0.110552653515 0.0543784642475
0.0335054972195 0.0996016296822 0.0442338857295
-0.0491914342004 0.110829160837 0.0514422516958
0.0330920401917 0.0748063091372 0.0501798035191
-0.0102637102778 0.168590735215 -0.0017822881097
-0.0322137575114 0.16572069425 0.013722560303
-0.062294809639 0.137023825403 0.0664607601896
0.0445278405963 0.0865609170279 0.0360380934584
-0.0229311651599 0.159438159316 0.0157690262919
0.0160570262201 0.0929663666406 0.0562023404817
-0.0405732196965 0.120158396701 0.0408733524649
-0.0458511022743 0.142771733304 0.0248025115362
0.0213864830937 0.0858459777916 0.0582679300035
0.0399461211442 0.0877607912933 0.0440994509501
0.0417762092173 0.0971862324622 -0.000510252135889
-0.0812824918194 0.144405573043 0.0275735987968
0.0194615764686 0.0352527012439 -0.00277745969674
-0.0857635835997 0.0978976357634 0.0372094103563
0.0143537862652 0.0366632204078 -0.0170527332467
0.0183544014051 0.0453212181346 -0.0194750399705
0.0222981861118 0.0403116272526 -0.00489065807131
0.058847218083 0.047973391008 0.0152834244884
0.0206310236849 0.0471110836796 -0.017131113281
-0.0139398720756 0.163102037265 0.00589183296328
0.0261574479589 0.0505750802216 -0.0171948604489
-0.0633504562174 0.154543228477 -0.00800244132131
0.0581958554482 0.0499478555693 0.00494852045332
0.0533427323687 0.0581801334385 -0.0050207556718
-0.0343607581122 0.150587608846 0.0178991890348
0.0624504664526 0.0600451779556 0.00576823310414
0.0380137076234 0.0648400871918 -0.00982725433101
0.0301404149487 0.0492962706992 -0.00722287718762
-0.0857000199822 0.134749790281 0.0258044854087
-0.0619176074011 0.15893711195 0.00159939133129
0.0290348901376 0.0599236259145 -0.0162184522677
0.0190801526073 0.0578151620947 -0.0246088878954
-0.0901645612872 0.120500420782 0.0441334390832
0.0421638520191 0.063159541223 -0.00179233574146
-0.0731474476394 0.160574467441 -0.0306739941933
0.0426175273626 0.105244925624 0.0102639718411
-0.0478614934273 0.140687677347 0.0367956388673
-0.0852647201107 0.121100469039 0.0192241176647
-0.0241956386619 0.155876636019 0.0131264548998
-0.0486050673518 0.136871605109 0.0467076396489
0.0301764438198 0.0704706394851 -0.0164150176044
-0.0884989468362 0.112086884361 0.037611691587
0.0385236787062 0.0780870556685 -0.00806988110019
0.0478085658534 0.0715808728147 0.00606558300033
-0.0755376219779 0.149672588972 0.0136902699555
0.0469008558898 0.0945491981044 0.0113914196491
-0.0863326645553 0.114630409726 0.0490923122059
0.0443500480783 0.0801464996329 -0.000931573422791
0.0363677844815 0.0866848054139 -0.0133774076812
-0.0663296433443 0.164586646791 -0.0250943652218
-0.0863231844084 0.116952039177 0.0636358399011
-0.0708933537956 0.176923371405 -0.0201849520482
-0.068606636404 0.185220770099 -0.0348673002421
0.00756260869169 0.0928444636187 0.0611576371938
-0.0781504257704 0.153027077413 0.0368681476115
-0.0828407828596 0.107217398925 0.0354945784578
-0.0874520831347 0.139294884307 0.0403446239571
-0.0862871993008 0.12493850623 0.0530648170047
-0.0662572726543 0.171587040966 -0.0225110135468
-0.0869998730784 0.133302388502 0.0387596419117
-0.024950046631 0.114885329354 0.0443419898224
-0.0258394639783 0.124546551787 0.023083249082
-0.081727098778 0.170056807052 -0.0121681005688
0.0172901484618 0.125122270872 0.0362541719539
-0.0793911236033 0.110852874293 0.0185907804861
-0.0629827814987 0.154244899391 0.0439625271388
0.062115517107 0.0681217070979 0.0103431944098
0.0319831343808 0.119089521548 0.0121255901188
-0.0866957128929 0.147830894483 0.0447077604817
-0.0856185056391 0.128333048351 0.0227348586536
0.0602378631315 0.0698780599893 0.0173863282343
-0.0851840062492 0.0924135496362 0.0235001104674
-0.00192902719327 0.0932827739765 0.0609862509122
0.00843742587794 0.0979945340118 0.0519124573234
-0.0495502025135 0.150263099067 0.0477654099906
0.049263464937 0.072028751364 0.0172829653804
-0.0477473022836 0.150372736984 0.0324905346625
-0.0394482232599 0.127082776588 0.0305968583063
0.0360532309632 0.114885541858 0.0290926096147
-0.000698617421855 0.12719042531 0.0368065633035
-0.0671377736988 0.165879764802 0.00376354594894
-0.0743318092867 0.17186761775 -0.00372326498979
0.0555610545436 0.070898427451 0.0205212573683
-0.0113130216158 0.127371789508 0.0286807586273
-0.0233558057525 0.122358866369 0.03224999956
-0.0836029745387 0.0959474142342 0.0147468552596
0.00915231901736 0.130279860671 0.0122844647509
-0.0556219412268 0.0386967321431 0.0536530215049
-0.0487082583082 0.0390794988323 0.0565343823226
-0.0192587496592 0.0332434395876 0.0611704692311
-0.0599288923317 0.0396583351071 0.0387038273486
-0.0621330264494 0.0321466389045 0.0470676661773
-0.0589633339703 0.0414296877973 0.0460343139422
-0.0274972698327 0.0380308534668 0.0559836702471
-0.0692257196597 0.0345013017383 0.0219438204732
-0.0561269101799 0.0376755859406 0.0304133287834
-0.00455107203737 0.102062795371 -0.0142541978846
-0.0246729027913 0.0754225862697 0.0511696164657
-0.0656852847793 0.0440493344052 0.0194086867388
-0.0556085540014 0.154622723598 0.0301055599855
-0.055426845122 0.0468973754985 0.0202044151652
-0.0807375682189 0.183365953315 -0.0258782416707
-0.0160284887013 0.0814654427737 0.0642244222211
-0.0275325538422 0.0475283685708 0.0462271438218
-0.0471103184522 0.0461589208575 0.0269127216499
-0.0780493483299 0.0785942375601 0.0460527745921
-0.0469230208531 0.0494968003244 0.0410253945461
-0.0131983304957 0.0898706631126 0.0614350621537
-0.0800359025219 0.137433467549 0.0625807544381
-0.022585016359 0.0496813878639 0.0441073261939
-0.0775493294784 0.109406315301 0.0677259266799
-0.0827933503359 0.177487626368 -0.0211063969345
-0.0725547543122 0.0834432804462 0.0539024808713
-0.0492993373187 0.0578927329635 0.0379187566245
-0.0799811790499 0.147905532024 0.0526300575293
-0.0771896703023 0.127230769024 0.070622294711
-0.0736158754672 0.114228990944 0.0126188115205
-0.0184006587772 0.0907225615258 0.0556620662638
-0.00988229879021 0.0953912934705 0.0542003812223
-0.0686716068432 0.103752329167 0.0541913403321
-0.077338504831 0.105802500849 0.0467547149991
-0.0704147347033 0.123622506518 0.0743511772938
-0.00963203003077 0.0572870926672 0.0595126568826
-0.0601947607803 0.0856911627729 -0.00614657288431
-0.0174998553295 0.0755706873919 0.0629985244951
-0.0112771952253 0.0999388430355 -0.0205969581147
-0.0605268051943 0.0336943533106 0.0348270829233
-0.0740044628552 0.165959124843 -0.0221782296845
-0.0454188881176 0.0465598002974 -0.00138954504549
-0.0680715794928 0.116380620734 0.00977124986309
-0.08395571853 0.134367845068 0.0475597575582
-0.0684241004628 0.0424225103107 0.0128163701492
-0.0716253322199 0.0351943044336 0.0144544342617
-0.073470957664 0.15435136792 0.0217830361803
-0.0583016769844 0.154221066765 0.024484383117
-0.0464800556632 0.0365204564242 -0.0182621933272
-0.0466089907356 0.0413717103577 -0.0124524774116
-0.058401610503 0.0474160419084 0.0114524818883
-0.0410065560829 0.0477198730316 -0.0137762317803
-0.049715713596 0.0462468930832 0.0402879122292
-0.0518849917412 0.0446009962458 0.0496823318988
-0.0798688720667 0.150662160768 0.0267783439669
-0.0560870001947 0.0523189445889 0.0121364734278
-0.0319483452419 0.0513882736281 -0.0111365811554
-0.052441092927 0.0524126607628 0.00378926224836
-0.0548591854794 0.0564010016015 0.0190427476456
-0.0470167866625 0.0527058735974 0.0262303070944
-0.0897204271086 0.127723571698 0.0406610605511
-0.0705720331994 0.172196549136 -0.036571971097
-0.0755316786382 0.153097810942 -0.00675048945136
0.0148725217968 0.0964541483664 -0.0179071817803
-0.0871173375262 0.147992755597 0.0373352561821
-0.0507164876849 0.162913785058 0.0196730850627
-0.0788632363861 0.160496068666 0.00150651367461
-0.0572465957539 0.112393001793 -0.000950925673093
-0.0762575186102 0.0686036204096 0.0322221679457
-0.0758917015261 0.162397505688 -0.00762305815685
0.0279969018073 0.096438671482 -0.0137916829278
-0.0767199723536 0.146448686007 0.0186748123885
-0.0834127657672 0.12690972776 0.0619514520563
0.00170092062115 0.0963337192616 -0.0242781231002
-0.025380577923 0.179898852826 -1.96529507882e-05
-0.0770891537073 0.0732849405261 0.0105396252205
-0.0325505519767 0.0694826463237 -0.018166391025
-0.032006972254 0.0613670113646 -0.00980884734904
-0.0744027453728 0.0698453139869 0.0152445368595
-0.0397407216993 0.120888468248 0.00259703955968
-0.0840272928354 0.079824916605 0.0283257020876
-0.07162372436 0.144864138919 0.00673793671224
-0.0805781754565 0.0744226546365 0.0197953188647
-0.0698983279617 0.141119231044 0.0128800544482
-0.0376295734571 0.0797404957768 -0.00810777261099
-0.0802448591171 0.129290601181 0.0163886515475
-0.035107601967 0.0807443113661 -0.0206361693187
-0.0792392952558 0.0822872738946 0.0089878419745
-0.0399418804338 0.16662369983 0.00735903203483
-0.0354961303811 0.0874758140898 -0.0129692044204
-0.0844363490447 0.0838635651984 0.0321412064523
-0.0835530206632 0.138274873464 0.0548027321916
-0.0749425883722 0.153642952979 0.00659741138803
-0.0828020271705 0.108846867592 0.0260538642973
-0.0379749894357 0.17423538405 0.0108892904018
-0.0558867751535 0.0416529552344 0.000498862890273
-0.0849431219128 0.085317590892 0.0171005397602
-0.0497423122898 0.119698075242 0.00236695446188
-0.0855210463618 0.090303875133 0.0405304224274
-0.0896290070732 0.115719395233 0.0301476545007
-0.0511158101226 0.126954472246 0.0123755459827
0.020293935699 0.101783464285 -0.0149203463081
-0.0143127624399 0.113277425371 -0.00709019736439
0.0563002314257 0.0720443913415 0.0085630950388
-0.0213892434369 0.115956799319 -0.00408479740041
-0.0260393277864 0.0961437021394 -0.0213772855002
-0.0157796755106 0.187246368812 -0.00884600410547
-0.0308928498489 0.0364864097667 -0.022569912994
-0.0578854603154 0.149438691598 0.0190368605197
0.0245921222401 0.112382450804 -0.00574536482433
0.00981044492121 0.10622194244 -0.0125764293336
0.0236825484621 0.121826830976 0.00358599326072
-0.00539049314092 0.12535335044 0.00211445174824
-0.0349493598923 0.10682640323 -0.00749863087259
0.00496220201208 0.100928979899 -0.014087104095
-0.0144517617736 0.125034877742 0.00864007109865
-0.0738470334901 0.18557175937 -0.0337459020471
-0.00367105711418 0.113670076493 -0.00939279760273
-0.00763262762472 0.112081341126 -0.0116496547148
-0.0656785405326 0.0426396366314 0.0085338719495
0.0306190298291 0.0800679606783 -0.0161664969038
-0.0449554609763 0.134508714543 0.0277972390059
0.00366677814836 0.115718758124 -0.0105814465143
0.0520096004854 0.0655438528228 -0.0021832479252
-0.0330474112561 0.115880523117 -0.00199460457664
-0.0400202711744 0.0363032034764 -0.0231310630641
-0.0218708526642 0.0996355060668 -0.0133407742864
0.0326650549946 0.111294769067 -0.00226821021464
-0.0449112516403 0.128675963312 0.0177527057856
-0.0400343976782 0.125929989065 0.00787739364546
0.00405056045111 0.126286113736 0.00339189791371
0.020103152215 0.126936604112 0.0126800312532
0.0581920377202 0.0668903452834 0.00150393445307
0.00925463644906 0.121477678165 -0.00465536580559
-0.0270600487252 0.123998705897 0.0163753519632
-0.0123497050998 0.0361885153254 -0.0199365420144
0.0064743452714 0.0383929428726 -0.0211038675102
-0.0362312419133 0.0448956270033 -0.022148154018
-0.0112211966259 0.0452737292639 -0.0210188757508
-0.0159555365866 0.105323952499 -0.0124117113758
0.0369296673136 0.0405466825657 -0.00302455683088
0.00279651410358 0.044839409988 -0.0208365088917
0.0107781346806 0.0499075171436 -0.0232478887509
0.0404123648941 0.0513592706781 -0.00782693050161
-0.0114114331121 0.0482588127843 -0.0242175361665
-0.00132548688725 0.0507735758015 -0.0257702884702
-0.0215265107521 0.0472400975315 -0.0214168425791
-0.0195705179235 0.0558518824718 -0.0259921281654
-0.0535223010217 0.0462956974987 0.00301672197051
0.0196757356536 0.0532898559234 -0.0221378498765
-0.0294228091731 0.0509713749265 -0.0174079629041
0.0471722595719 0.0476242245756 -0.00458979449009
-0.0333766302373 0.051654400034 -0.00261629549658
0.00538483760967 0.0566093042086 -0.0265308837005
-0.0105527922213 0.0575788464928 -0.0271039012671
-0.0286101021207 0.0641474778736 -0.0222931206675
0.0361021846531 0.0546166846095 -0.00640781043263
-0.041304935993 0.109016349824 -0.00546532658031
-0.0434409141501 0.0553713139833 -0.00110046106757
0.000219954460535 0.0594368705591 -0.0263453154124
-0.00295845647587 0.0663836487707 -0.0285831191119
0.0183586834597 0.0640119342782 -0.0234936884628
-0.027086495596 0.107803375855 -0.0102125569125
-0.017802383893 0.065620174003 -0.0293895824493
-0.0619819011794 0.104495848101 -0.00169770281347
-0.033808354307 0.0569651735319 -0.00121730543887
-0.06787424027 0.0700926513304 0.0497884522479
-0.0565497356601 0.0605649792661 0.00918013971992
0.01911031193 0.0714280953285 -0.0238627235804
-0.0593586040136 0.121657240046 0.00918070187076
0.00771966783614 0.0685733713036 -0.0263960936419
-0.00631387342838 0.0709996776566 -0.0278643671379
-0.0221075565766 0.17467910114 -0.00337058097226
-0.0122366961732 0.0771973305517 -0.0297735843401
-0.0653181773527 0.067334694976 0.00637317258618
-0.0482784212713 0.143122205267 0.0193768123288
-0.0399369202048 0.159611728756 0.00735019680064
-0.0246205809039 0.0683637596626 -0.0280223409754
-0.0518533079514 0.0679412964288 -0.000277359098018
-0.0190678462011 0.0793738891092 -0.0300708840897
-0.0353070446676 0.0654075439188 -0.00419196247013
-0.0448225334495 0.0689344114436 -0.00476275289022
0.0226022724903 0.0865849816538 -0.0199820739737
-0.0597271325484 0.0710231322827 -0.00168160408552
-0.0426808351842 0.0859104579339 -0.00869537276749
-0.070013405341 0.0763628744784 0.0002007360324
0.00533984318503 0.0759194686736 -0.0280707222756
0.00273442185056 0.0870140700056 -0.0262409007124
-0.03093836778 0.0896893545723 -0.0248935388506
0.011409812534 0.0791195358281 -0.024872831047
0.0112728742964 0.0893790207541 -0.02399416446
-0.0751941960961 0.0854675195789 0.00149577956309
-0.076461642738 0.0956485114393 0.00426104297676
-0.00583026299113 0.0859505510153 -0.0292182300391
-0.026490350033 0.0806949922985 -0.0290794748762
-0.0572094119431 0.0811587993465 -0.00703197623375
-0.0667582332415 0.0849351475729 -0.00344326171661
-0.0186866610666 0.0939752059219 -0.027352038153
-0.0529255374601 0.152407210944 0.0172230514985
-0.0750353031639 0.125519678786 0.0119061832472
-0.0210161168522 0.0358755788381 -0.0206324817335
0.00223319309359 0.0356676304752 -0.018375857147
-0.00498811875619 0.0357536304948 -0.0138093692006
0.0108650626729 0.0351499561707 -0.00956700195007
-0.0336973466198 0.035545756492 -0.0141559191576
0.00675096216983 0.0394763127101 -0.00688736594028
-0.0728932606462 0.109499977487 0.0667114236367
-0.00543817757471 0.0402348622931 -0.0100570225176
-0.0340372134384 0.0398827549666 -0.00902200507796
-0.0403931600639 0.0352328811616 -0.00736096651975
0.00838549334158 0.0338730381512 0.00667919829192
0.02610006255 0.0345363950511 0.00262179895463
-0.0421191867348 0.0339833870847 0.00465058115251
0.0175936299713 0.0339702859925 0.00281030443626
-0.0603726443739 0.0343839316375 0.000175301018602
-0.0382766292994 0.0387125329544 0.00105587439143
-0.00261550688198 0.0374981598062 0.0122917645559
0.02660918827 0.0333061769581 0.0109695190892
0.0447557323108 0.0403543025215 0.00249554349232
-0.0496009558068 0.0346101808387 -0.00440010822134
-0.0237162482726 0.0400408062898 -0.0109418133568
0.00287239852082 0.0336770429605 0.00676945006461
0.0502217789736 0.0417780763093 0.00865216895451
-0.0683992267833 0.0329993884979 0.0160878116665
-0.0280863560883 0.0378384937096 0.00953476572712
-0.0690438005238 0.0349720941482 0.00547177275788
0.00728475420622 0.0326733709924 0.0179245705429
0.0356509563327 0.0344489423127 0.0104556254763
0.00535269815128 0.0324776005391 0.0221040087026
-0.0498389003275 0.0327412967467 0.0169082045616
-0.0330223376836 0.0327139925258 0.0174351185236
-0.0272202282817 0.0326364891279 0.0245973933516
-0.024887909843 0.0358213320844 0.0264759116622
0.0224375085423 0.0327449238631 0.0217713810682
0.00235996396214 0.0364714181574 0.0249149971239
0.0254522918782 0.0330479841712 0.024153536581
0.0378248110252 0.0364426106026 0.0234584996403
-0.0587838680464 0.0326159166874 0.0306172085133
-0.0461216962968 0.0626837418061 0.0477732107345
0.000290711141287 0.0359647975928 0.0391529645128
-0.0786586635618 0.0748664854146 0.0376029556065
-0.0514303033633 0.031831530199 0.0334296672755
0.0137084795865 0.0318761192186 0.0374606146371
0.0168150896997 0.031976113723 0.0305060649964
-0.083676587625 0.108711026855 0.0577350055221
-0.066066623531 0.0628649936303 0.0116750217163
-0.0305992251453 0.0314797019761 0.0411658786983
0.0119045416185 0.0364435844749 0.0324676285625
-0.0725588011699 0.148881392885 -0.0051691386605
-0.013630707122 0.036435326809 0.0220227252327
-0.00133341966392 0.0308707842362 0.045914103178
-0.0272558469683 0.0348900765898 0.0389705526724
0.0105171312561 0.0306419579173 0.0455220337873
-0.0670348921753 0.0599495874622 0.0233920720578
-0.0328480212213 0.0317553758575 0.0338052560262
-0.0196815755069 0.0355810037948 0.0440482388016
-0.062360526008 0.032122273404 0.0418505702156
-0.0689647039043 0.147998142514 -0.00450196954539
-0.0316960238962 0.0310056232325 0.0488985615344
-0.00626766746536 0.0307407177988 0.0542716742579
-0.0566174573033 0.0624203739586 0.0457831503654
-0.0483572036954 0.0546534819504 0.0308547222879
-0.0406428813255 0.0309362290732 0.0536399611791
0.0102420130102 0.0314711038713 0.0479256945241
-0.079142546359 0.108764874043 0.0484894055265
-0.053937076211 0.0306949137772 0.0552884317648
-0.0238447266978 0.030629886337 0.0582263815954
-0.06746855277 0.106210590966 0.0645063806046
-0.0742238385895 0.0667325425227 0.0262035994186
-0.0662856337651 0.0599319979792 0.0316523442353
-0.0694031632935 0.161463619118 -0.0323448412939
-0.0431509191647 0.149268389841 0.0136516829562
-0.0556813231172 0.13677747217 0.0135531815726
-0.0658448645049 0.174508041536 -0.0394608601593
-0.0487231485024 0.137313564224 0.0196688276006
-0.0256434698768 0.157268871155 0.00700482022437
-0.0114579546248 0.178333177458 -0.0135928317288
-0.00980821918339 0.171099514985 -0.00941262728505
-0.018751321031 0.165988537842 -0.000956365877755
-0.075434684618 0.153640263751 -0.019031917223
-0.0142530830291 0.160833152409 0.00446508862394
-0.0631577082937 0.142455753116 0.0123826047085
-0.0706153926051 0.155072121713 -0.0237552581242
